# .PCD v0.7 - Point Cloud Data file format
VERSION 0.7
FIELDS x y z normal_x normal_y normal_z curvature
SIZE 4 4 4 4 4 4 4
TYPE F F F F F F F
COUNT 1 1 1 1 1 1 1
WIDTH 597
HEIGHT 1
VIEWPOINT 0 0 0 1 0 0 0
POINTS 597
DATA ascii
-0.13642231 0.098436043 0.99593759 0.20712177 -0.77998281 -0.59053141 0.006162425
-0.12502998 0.1001656 0.99604672 0.23229118 -0.74399692 -0.62650567 0.0027957368
-0.11401633 0.10335314 0.99809372 0.21920247 -0.74894232 -0.62532854 0.0035210303
-0.10110408 0.10443586 1.0002501 0.17995679 -0.79128498 -0.58436584 0.0037461722
-0.091791034 0.10583172 1.001 0.14778754 -0.79168493 -0.5927847 0.0038775508
-0.11209892 0.10880861 0.9938333 0.18253307 -0.70193052 -0.68845856 0.0066479458
-0.10113834 0.11014123 0.99400002 0.158683 -0.72043759 -0.67512167 0.0070849685
-0.089157 0.11040013 0.99499989 0.12880814 -0.75886196 -0.63838625 0.0057879649
-0.077896677 0.1112889 0.99641192 0.16845739 -0.74220711 -0.64865297 0.0052190847
-0.065925039 0.11403066 0.99739999 0.18989992 -0.73409534 -0.65195245 0.0046369103
-0.054209519 0.11631372 1.0003181 0.15687987 -0.72959554 -0.66564184 0.0038479113
-0.041410908 0.11692689 1.0003333 0.11492659 -0.69859451 -0.70622772 0.0012086198
-0.030714016 0.11751103 1.0010002 0.14589661 -0.69377619 -0.70525801 0.0042728353
-0.022816125 0.11846835 1.001 0.19990973 -0.67483866 -0.71037233 0.0041889078
-0.063366786 0.12064203 0.99290001 0.18520336 -0.66920739 -0.71962559 0.0074389894
-0.052567564 0.12184219 0.99475998 0.13140029 -0.67914575 -0.72214615 0.0043721544
-0.040728059 0.12335669 0.99532419 0.091556527 -0.68840092 -0.71952868 0.0019374803
-0.029871745 0.1243398 0.99546146 0.168663 -0.67759401 -0.71583468 0.0035885058
-0.018537618 0.12521656 0.99710637 0.18667142 -0.65966505 -0.72800815 0.00301445
-0.0071295495 0.12739329 0.9998998 0.13582945 -0.66312802 -0.73607856 0.0061410577
0.0063279751 0.12803113 0.99955547 0.03945199 -0.62750727 -0.77761054 0.0018397035
0.018355364 0.1271981 0.99985266 0.022293415 -0.66816592 -0.74367827 0.0015344691
0.02940141 0.12758125 0.99996132 0.033688236 -0.66675079 -0.74451894 0.00074364064
0.041037858 0.12898919 1.00025 0.060052257 -0.65115935 -0.75656152 0.0019731864
0.054165907 0.12884289 0.99980003 0.041531511 -0.61268622 -0.78923422 0.0028949899
0.065147147 0.12883173 1.001 0.047127463 -0.63976276 -0.7671262 0.0053870436
0.077813342 0.12991379 1.0007694 0.09919294 -0.67079389 -0.73498052 0.006925317
0.08950942 0.13075395 1.001 0.12530962 -0.69761747 -0.70542705 0.0040544104
0.17638621 0.13031517 1.001 -0.43558696 -0.42046809 -0.79590863 0.061689474
0.18443036 0.12973017 1.0010002 -0.19860056 -0.52458465 -0.82787001 0.027247941
-0.01453554 0.134581 0.99338448 0.19237548 -0.61573291 -0.76411027 0.004488905
-0.0059405323 0.13481617 0.99372762 0.15672967 -0.61844218 -0.77004236 0.0061335005
0.0065203351 0.13634793 0.99320024 0.0054334737 -0.6076045 -0.79422116 0.0010891124
0.017779626 0.1350079 0.99358851 0.010856007 -0.61919981 -0.78515851 0.0018933159
0.030012382 0.13485113 0.99375892 0.042295326 -0.62065941 -0.78293872 0.0021789179
0.041687693 0.13580497 0.99507886 0.068267584 -0.61935401 -0.78213817 0.0016633285
0.053146426 0.13678183 0.99383694 0.067895956 -0.60264552 -0.79511541 0.0029535559
0.065471269 0.13703921 0.99573463 0.025665509 -0.61907399 -0.78491318 0.0045558237
0.07746435 0.13672899 0.99425006 0.065798834 -0.64875746 -0.75814527 0.0046676635
0.08944165 0.13742676 0.99711365 0.074728996 -0.67445552 -0.73452377 0.0054109292
0.10076287 0.13761747 0.99786013 0.16949353 -0.69395655 -0.69978303 0.0027244773
0.11188836 0.1404355 0.99878269 0.16607036 -0.71336401 -0.68083215 0.0023669114
0.12504993 0.14230828 1.0010002 0.19122513 -0.72735494 -0.65908098 0.0027691002
0.13496616 0.14268856 1.001 0.20247114 -0.73370153 -0.64860421 0.0026236181
0.17357151 0.13752027 0.99853837 -0.4054383 -0.53920847 -0.73815572 0.059665602
0.18455835 0.13784966 0.9993695 -0.23658359 -0.45209691 -0.86002129 0.028300749
0.19393708 0.13952938 1.0010002 -0.10332362 -0.44606796 -0.88901502 0.025394173
0.053048853 0.1434928 0.99200004 0.075537354 -0.60204935 -0.79487783 0.0021603152
0.065610513 0.14387932 0.99200004 0.029025795 -0.603935 -0.79650486 0.0032078084
0.073920533 0.1434928 0.99200004 0.03227346 -0.61930412 -0.78448761 0.0051072044
0.091065124 0.14374128 0.99200004 0.095581383 -0.63789177 -0.76417166 0.0039739269
0.10131463 0.14436245 0.99199992 0.12976538 -0.66623902 -0.73436129 0.0036046349
0.11489081 0.14573948 0.99283326 0.13905613 -0.7109049 -0.68940389 0.0016108017
0.12535249 0.14674713 0.99417263 0.16152528 -0.72578764 -0.66868663 0.0011712105
0.13707557 0.14848243 0.9955675 0.20531952 -0.72213459 -0.66057968 0.0023159457
0.14868818 0.15153329 0.99650019 0.15973873 -0.75392228 -0.6372478 0.0112478
0.1601532 0.15304852 0.99942106 -0.063989498 -0.67780381 -0.73245299 0.034878582
0.17327499 0.14953281 0.99512273 -0.24965301 -0.50760943 -0.82462478 0.044137206
0.1849076 0.14887676 0.99313349 -0.024966089 -0.37193453 -0.9279232 0.023499239
0.19280767 0.14861119 0.99411762 0.11464909 -0.33701062 -0.9344942 0.013464433
0.15102978 0.15595783 0.99200004 0.13285895 -0.70118678 -0.70048946 0.012474872
0.16156733 0.15851901 0.99275017 -0.079600982 -0.59839571 -0.79723662 0.034003783
0.17108852 0.15803933 0.99233329 -0.01294362 -0.51755881 -0.85554975 0.039846875
0.18859053 0.15914656 0.99199992 -0.044990074 -0.21756002 -0.9750095 0.042012118
0.19381675 0.1618135 0.99199986 0.15704891 -0.11850038 -0.9804557 0.035838861
0.18842489 0.17769916 0.99200004 0.38019818 0.14063722 -0.91415018 0.02096379
0.19442965 0.17442761 0.99199992 0.32322326 0.077981852 -0.94310421 0.020938594
0.18511261 0.18511182 0.99297076 0.54786301 0.18171404 -0.81659418 0.019958112
0.19364952 0.18597353 0.99800003 0.44524598 0.22863692 -0.86572582 0.010921655
0.17827894 0.20262922 0.99200004 0.7128216 0.16898948 -0.68068188 0.019612435
0.18535376 0.19674321 0.99555266 0.57710034 0.24251127 -0.77983558 0.012036483
0.19380155 0.19576126 1.0002943 0.47730559 0.27953956 -0.83308882 0.0093766116
0.18625703 0.20632806 0.99980003 0.51823348 0.30150694 -0.80032974 0.0084535079
0.19362275 0.20658056 1.0007694 0.51959646 0.30115825 -0.79957694 0.0087801386
-0.31568417 0.35742751 0.99200004 0.26881933 0.50993699 -0.81712937 0.0076634553
-0.33515406 0.36649314 0.99300003 0.29440212 0.50060195 -0.81407928 0.0063143042
-0.32655007 0.36595839 0.99357152 0.30247447 0.49028638 -0.81739122 0.0057699406
-0.31762242 0.36404991 0.99499983 0.28913933 0.50536782 -0.81302023 0.0058687408
-0.33616659 0.3757557 0.99600005 0.31741789 0.49618629 -0.80811203 0.0065669622
-0.32766917 0.3750504 0.99733299 0.31732813 0.49619401 -0.80814254 0.0066492292
-0.31723192 0.37295592 1.0010002 0.29012567 0.49998158 -0.81599361 0.0058043073
-0.33668414 0.38348642 1.001 0.31277803 0.47144312 -0.82456738 0.0067472737
-0.32732368 0.3820239 1.001 0.31405234 0.48524222 -0.81603372 0.0066148057
-0.21628681 -0.32222322 1.0070001 0.14445019 -0.67097914 -0.72726959 0.056107134
-0.21452121 -0.32222322 1.0070001 0.15248561 -0.6782487 -0.71883714 0.054849651
-0.19789435 -0.32362589 1.01 0.22006811 -0.6650787 -0.71361083 0.052374057
-0.1826728 -0.32277507 1.0115 0.26777798 -0.49578151 -0.82613295 0.010521349
-0.17613256 -0.32355106 1.013 0.2848143 -0.50910801 -0.81221294 0.0080506587
-0.19532214 -0.31638554 1.0055 0.24563144 -0.63779068 -0.72999197 0.055669792
-0.18390119 -0.31638834 1.0066363 0.37868977 -0.42138937 -0.82402974 0.041191746
-0.17367201 -0.31451002 1.0107502 0.33469963 -0.40450853 -0.85108697 0.012532688
-0.16120151 -0.31231421 1.012864 0.35316449 -0.34290358 -0.87045503 0.012441894
-0.19451831 -0.30894083 1.0040001 0.40279099 -0.27686805 -0.8724125 0.054891262
-0.18131571 -0.30894083 1.0040001 0.32808092 -0.34588534 -0.87904853 0.015609387
-0.1723046 -0.30384201 1.0075216 0.41889468 -0.24689525 -0.87382489 0.017119795
-0.16077444 -0.30335462 1.0116428 0.43024993 -0.16581231 -0.88735074 0.022889081
-0.15274689 -0.30282959 1.0130001 0.38167337 -0.087945327 -0.92010385 0.015518461
-0.17188555 -0.29234925 1.0060527 0.45940694 -0.047044802 -0.88697922 0.015747948
-0.16171017 -0.29299951 1.0115002 0.44608852 -0.047379777 -0.89373386 0.020317528
-0.15185882 -0.29335693 1.013 0.39879262 -0.02243223 -0.91676676 0.013617652
-0.17216711 -0.28077838 1.0071801 0.50452077 0.052424673 -0.86180651 0.0090571148
-0.16210268 -0.27780077 1.0128893 0.46699807 0.081312016 -0.88051182 0.013170738
-0.14779912 -0.2832922 1.013 0.41251001 0.059169181 -0.90902936 0.013031513
-0.18043554 -0.264052 1.0040001 0.48367065 0.1132419 -0.8678934 0.0050373967
-0.17234789 -0.26813567 1.0082241 0.52141541 0.081838176 -0.84936947 0.0068567577
-0.16103984 -0.2682974 1.011974 0.47103265 0.0951012 -0.87697434 0.013921916
-0.18069045 -0.25406218 1.0043334 0.46960193 0.2320008 -0.85185069 0.006114034
-0.17336239 -0.25635645 1.0093569 0.48824599 0.21044539 -0.84695256 0.0068941852
-0.16285929 -0.25697747 1.0122002 0.45271322 0.1896493 -0.87125421 0.0059543275
-0.32398883 -0.24277091 1.0070001 -0.70183432 0.016739905 -0.71214348 0.027248118
-0.1922216 -0.24185766 1.0045455 0.50828314 0.23154759 -0.8294782 0.0053267144
-0.18360767 -0.24360891 1.0057859 0.47222659 0.21516773 -0.8548128 0.0055687339
-0.17385134 -0.24482378 1.0112633 0.47379172 0.21761274 -0.8533265 0.0060558282
-0.16517977 -0.2495458 1.013 0.44990262 0.21638931 -0.86646593 0.0047171372
-0.19322175 -0.23172769 1.0050499 0.49540341 0.19920366 -0.8455137 0.0053038541
-0.18474668 -0.23248598 1.0083467 0.49158996 0.18680343 -0.850555 0.0061013703
-0.1750004 -0.23434785 1.0125718 0.50957048 0.18499209 -0.840307 0.0062592891
-0.19418059 -0.22037773 1.0049999 0.44058865 0.23637488 -0.86603034 0.0069705308
-0.18511727 -0.22054876 1.0103672 0.44586137 0.23875664 -0.86267197 0.0071101026
-0.17796789 -0.22006209 1.0130001 0.52465016 0.24635948 -0.81489211 0.0091491081
-0.20588617 -0.2064921 1.0061723 0.4485082 0.36889058 -0.8141008 0.0098385643
-0.19630614 -0.20865777 1.008862 0.43387708 0.3075003 -0.84687322 0.010347843
-0.18544684 -0.21024171 1.012885 0.48333603 0.30536956 -0.82044852 0.011605391
-0.17805669 -0.21269116 1.013 0.4922407 0.34192821 -0.80049002 0.007789026
-0.22796489 -0.19187778 1.0040001 0.41488773 0.44915274 -0.79128373 0.0087259896
-0.21915288 -0.19336121 1.0062857 0.39495561 0.42307025 -0.81548852 0.0091936262
-0.20896511 -0.19628432 1.0104208 0.38183579 0.39931574 -0.83351576 0.012356255
-0.19857094 -0.19883735 1.0130002 0.41280451 0.39267388 -0.82182705 0.0096901739
-0.32484415 -0.18314736 1.006 -0.60935086 0.21125939 -0.76423877 0.0038928939
-0.23852697 -0.18043554 1.0040001 0.42732632 0.3292118 -0.84202838 0.0060671894
-0.23054633 -0.18288556 1.0053928 0.40938398 0.35302719 -0.84129465 0.0060284808
-0.22101322 -0.18510053 1.0097116 0.39769661 0.37931478 -0.83543867 0.0103848
-0.21033438 -0.18587852 1.0130004 0.38478318 0.36747855 -0.84670025 0.011843866
-0.19507791 -0.18738137 1.013 0.45731953 0.40891367 -0.78971422 0.01234987
-0.32405639 -0.17371976 1.0067501 -0.61493599 0.2035532 -0.76185286 0.0035803474
-0.32028529 -0.17280738 1.0040001 -0.60288531 0.21470751 -0.76839441 0.005176133
-0.24042273 -0.17055051 1.0039999 0.4156934 0.40514266 -0.81428397 0.0075008553
-0.23265105 -0.17300245 1.0090815 0.4009186 0.37123239 -0.83752656 0.010463824
-0.2211782 -0.17327733 1.011826 0.40144846 0.32714272 -0.85546285 0.0051781712
-0.21283917 -0.17593521 1.013 0.35053387 0.34509236 -0.87065339 0.0078233434
-0.32405812 -0.16130713 1.0077895 -0.55304712 0.20353563 -0.80790603 0.0081053274
-0.31950292 -0.16107173 1.0040001 -0.56319124 0.20175101 -0.80131894 0.0095955655
-0.25416672 -0.15824898 1.00565 0.41530967 0.43621841 -0.79826778 0.0085949227
-0.24387448 -0.16127653 1.0076252 0.43887416 0.39862895 -0.80528527 0.0078501105
-0.23410207 -0.16209884 1.0116218 0.37091416 0.39909303 -0.83853883 0.0071332841
-0.22417256 -0.16530664 1.013 0.35945529 0.36855534 -0.85729736 0.00670458
-0.32222322 -0.15184218 1.0070001 -0.48465332 0.26386556 -0.83395809 0.008715421
-0.31614256 -0.14824906 1.0048108 -0.39913666 0.27274656 -0.87538517 0.011400595
-0.30395567 -0.14455304 1.0041999 -0.25660345 0.3529498 -0.89976722 0.0046620597
-0.26791275 -0.14649761 1.0046664 0.31100157 0.41238287 -0.8562817 0.007664822
-0.25589019 -0.14902237 1.0081537 0.41289258 0.41777095 -0.80931282 0.0055042095
-0.24596842 -0.15032215 1.0124549 0.41332468 0.40562207 -0.81525064 0.0066475682
-0.3222951 -0.13723691 1.01 -0.34675974 0.33595634 -0.87572312 0.0045939148
-0.31594256 -0.13717586 1.0080909 -0.34099883 0.33759159 -0.87735498 0.0055959574
-0.30420291 -0.1370547 1.0069348 -0.23447227 0.38811302 -0.89128619 0.0074541378
-0.29297674 -0.13388416 1.0041362 -0.051586971 0.38534799 -0.92132831 0.0099854665
-0.27938056 -0.1347187 1.0055001 0.12862554 0.39309654 -0.91045624 0.015162427
-0.26866239 -0.13700874 1.0085956 0.3133713 0.42695522 -0.84823793 0.0062560602
-0.25761187 -0.1383137 1.0110911 0.40212303 0.38050506 -0.83277434 0.0053590541
-0.24865773 -0.14209013 1.013 0.38520157 0.38015172 -0.840895 0.0054119322
-0.31302243 -0.12615748 1.0115002 -0.26786575 0.36143914 -0.89309001 0.0034531073
-0.3038277 -0.12498272 1.010818 -0.2276765 0.37574771 -0.89831907 0.0069774454
-0.29212114 -0.12488858 1.0087726 -0.034973107 0.37690189 -0.92559272 0.0097863348
-0.28012183 -0.12455017 1.0084996 0.20321204 0.44474784 -0.8722983 0.010756767
-0.26955482 -0.12585062 1.0115407 0.31027827 0.42094401 -0.85236931 0.0044954279
-0.26197869 -0.12965724 1.013 0.37077123 0.3943913 -0.84082359 0.0018172499
-0.30219528 -0.11608256 1.0130002 -0.18553434 0.38490114 -0.90411741 0.0086344443
-0.29196241 -0.11468361 1.0124831 0.013133425 0.42845938 -0.90346563 0.010870469
-0.28077385 -0.11628836 1.0118574 0.1472255 0.44445547 -0.88361984 0.0081766667
-0.33771387 0.044585362 1.0105002 0.51439047 -0.79455268 -0.32262766 0.05156339
-0.32911471 0.044645999 1.0085001 0.44024283 -0.86028701 -0.2570844 0.058247402
-0.3381626 0.048761602 1.0040001 0.50701225 -0.84626395 -0.16363278 0.097112082
-0.33006501 0.048409533 1.0040001 0.49693623 -0.85659695 -0.13891032 0.10748193
-0.31171024 0.059500244 1.013 0.35189292 -0.8687638 -0.34845486 0.094023935
-0.30254287 0.057450216 1.0101876 0.054918353 -0.88933325 -0.45394978 0.082031943
-0.29181835 0.055958603 1.0101938 -0.13963689 -0.79936093 -0.58440018 0.0065775421
-0.2800971 0.054987058 1.0096923 0.032974306 -0.81740129 -0.57512426 0.0051014102
-0.26896927 0.057380829 1.0098637 0.11291004 -0.79775357 -0.59231806 0.0035668539
-0.2567986 0.057902694 1.0115001 0.23631725 -0.796848 -0.55604613 0.0037997395
-0.24747366 0.058908198 1.013 0.24266113 -0.80777454 -0.53722984 0.00355413
-0.31234038 0.062974863 1.0086666 0.44501778 -0.79209697 -0.41778174 0.10717304
-0.30475476 0.061615739 1.0056667 0.28061545 -0.81739634 -0.50310856 0.11917175
-0.29084554 0.061143313 1.0043334 -0.10177223 -0.80974728 -0.57788551 0.006198701
-0.28062803 0.061735675 1.0049231 0.027269252 -0.80350608 -0.59467173 0.0059746169
-0.26874623 0.060731959 1.0040001 0.13571586 -0.78805214 -0.60046238 0.0046293666
-0.25476414 0.063199967 1.0055652 0.18477887 -0.78163886 -0.59573269 0.0044182651
-0.24416296 0.065539107 1.0084286 0.22370298 -0.79013962 -0.57064557 0.0038269006
-0.23309027 0.067817934 1.0085 0.21234812 -0.81232715 -0.54316932 0.0024131688
-0.22185022 0.069254138 1.0107898 0.2424242 -0.81306362 -0.52929968 0.0020735657
-0.21021725 0.069903269 1.013 0.25290906 -0.80220747 -0.54083282 0.0023762353
-0.21896374 0.073898144 1.0071499 0.26528174 -0.80075938 -0.53703815 0.0021483793
-0.20827474 0.076308057 1.0081737 0.27515182 -0.78197575 -0.55929005 0.0013140341
-0.19697754 0.078913093 1.0094707 0.2151866 -0.79583955 -0.56598067 0.0021361315
-0.18511815 0.080805004 1.0118003 0.16519031 -0.80473232 -0.57019126 0.0021596025
-0.1734229 0.081475288 1.0124003 0.14573519 -0.83352888 -0.5329079 0.0043806047
-0.1625156 0.082589887 1.013 0.16655427 -0.85214353 -0.49609596 0.0047038728
-0.19417991 0.084190808 1.0048573 0.19636346 -0.81686532 -0.54237664 0.0029242199
-0.18454066 0.084765844 1.0072143 0.1386933 -0.83024228 -0.53987223 0.0024338206
-0.17282987 0.085677274 1.0075716 0.12329053 -0.84477013 -0.52073306 0.0024224783
-0.16083018 0.085903905 1.0082858 0.13744149 -0.86815149 -0.47688866 0.0020355538
-0.14851868 0.088791393 1.0081053 0.15748349 -0.87971383 -0.44866753 0.001638926
-0.13747144 0.090339296 1.0078751 0.17240463 -0.86074483 -0.47895202 0.0030408918
-0.12482204 0.091908954 1.0092802 0.2094923 -0.84549212 -0.49117818 0.0022129491
-0.11476662 0.093741022 1.0115001 0.21817072 -0.8327232 -0.50889456 0.0032881221
-0.12146392 0.095938891 1.0040001 0.23501624 -0.80796468 -0.54033345 0.0045577963
-0.11266898 0.097959846 1.0067143 0.22929777 -0.81988043 -0.52461284 0.0026018242
-0.10130341 0.099277683 1.0086071 0.18179137 -0.80096561 -0.57044369 0.0024501353
-0.088782281 0.10150386 1.0090488 0.146842 -0.81716812 -0.55738121 0.00046040231
-0.077629916 0.10290409 1.0103244 0.15695046 -0.82746762 -0.53913248 0.00076542952
-0.066223688 0.10429769 1.0101073 0.15258238 -0.81181413 -0.56362796 0.0041998951
-0.05452691 0.10497198 1.0116802 0.10036214 -0.80745113 -0.58133471 0.0063799294
-0.041321151 0.1055212 1.0115002 0.11106828 -0.79027939 -0.60259622 0.0051696124
-0.031155761 0.10477122 1.0123688 0.13987762 -0.78803873 -0.59952426 0.0036092454
-0.074814737 0.10826132 1.0040001 0.16895619 -0.8023082 -0.57249928 0.001961963
-0.064504132 0.1085128 1.0040001 0.15539169 -0.76861209 -0.62055528 0.005501586
-0.053213578 0.11116519 1.0061111 0.10162584 -0.74266958 -0.66190189 0.0041995808
-0.041350778 0.11158055 1.0063225 0.10734054 -0.73247933 -0.6722737 0.0029644771
-0.029060939 0.11183625 1.0080832 0.14633787 -0.74874687 -0.64650083 0.0037793305
-0.018371947 0.11414521 1.0090456 0.17807792 -0.72407335 -0.66633779 0.0031024213
-0.0066261552 0.11560276 1.0095947 0.1298437 -0.71768725 -0.6841532 0.005222857
0.0061980332 0.11598548 1.0100002 0.033677116 -0.73381394 -0.6785152 0.002265085
0.017913196 0.11673612 1.0100002 0.016983733 -0.72214097 -0.6915375 0.0020244259
0.029551636 0.11586664 1.0103638 0.02924565 -0.71617353 -0.69730914 0.0017243664
0.040909391 0.11645188 1.0112859 0.043906577 -0.71076798 -0.70205486 0.0026484155
0.054823272 0.11656858 1.0119503 0.069325544 -0.73437327 -0.67519611 0.0018003451
0.064133868 0.1170717 1.0107502 0.077842258 -0.72152704 -0.68799663 0.0022757477
0.072821192 0.11811242 1.013 0.12850288 -0.73837656 -0.66203254 0.0027515555
0.17285891 0.11675423 1.0130002 -0.70110947 -0.35726929 -0.61709344 0.071536303
0.18027686 0.11811242 1.013 -0.43915713 -0.45478344 -0.77479869 0.056300055
-0.014082774 0.12058374 1.0040001 0.17733896 -0.67855191 -0.71282405 0.0048247515
-0.0045861662 0.12262205 1.0039999 0.090276599 -0.68788362 -0.72018498 0.0062774154
0.0059211655 0.12250414 1.0039998 0.013202786 -0.67406577 -0.73855323 0.0010302797
0.018718477 0.12155334 1.00475 0.017007107 -0.67808592 -0.73478585 0.00050646928
0.030598519 0.12227911 1.004375 0.031221608 -0.6811614 -0.73146725 0.00088499108
0.041696951 0.12320946 1.0050645 0.047971815 -0.67909318 -0.73248291 0.001000636
0.053232379 0.12286055 1.0058001 0.073534824 -0.66401958 -0.74409044 0.0036326544
0.066456363 0.12326048 1.0060689 0.07468529 -0.68447912 -0.72519678 0.0043873889
0.077535227 0.1238603 1.0096252 0.13083465 -0.7227326 -0.67863089 0.0035986714
0.089391023 0.12539682 1.00861 0.14803679 -0.72533172 -0.67229384 0.0019512388
0.10149682 0.12637302 1.0096668 0.16997498 -0.73333389 -0.65827799 0.0017117711
0.1126588 0.12794578 1.0118574 0.17831102 -0.74264306 -0.64551252 0.0020257423
0.12457106 0.12989943 1.0130001 0.19478314 -0.74004191 -0.64373702 0.0016157803
0.13587369 0.1305453 1.013 0.20980951 -0.72911149 -0.65144181 0.0024446507
0.1735059 0.12456067 1.0094419 -0.67235988 -0.31542361 -0.66965663 0.10045051
0.18446574 0.12411702 1.0097502 -0.38511741 -0.49244404 -0.78050202 0.065869845
0.089777678 0.13114582 1.0040001 0.12990466 -0.71249837 -0.68954396 0.0034124164
0.10154 0.13178596 1.0039999 0.17320327 -0.72357178 -0.66816503 0.0020502552
0.11407568 0.13506171 1.0060999 0.16535729 -0.72446334 -0.66918588 0.0013510757
0.12500755 0.13599987 1.0077499 0.19961165 -0.72884852 -0.65493125 0.0023951305
0.13696423 0.13702548 1.0084683 0.22190164 -0.73427349 -0.6415621 0.0021743404
0.14810933 0.14012274 1.0116366 0.18228322 -0.72018069 -0.66941202 0.023260627
0.16073945 0.14244536 1.0130001 -0.17509431 -0.80564868 -0.5659259 0.096815951
0.17005534 0.13651015 1.00775 -0.66346455 -0.52780545 -0.53031713 0.06722305
0.18923727 0.13202599 1.0040001 -0.38921425 -0.49275097 -0.77827293 0.05997343
0.19253792 0.13312621 1.0040001 -0.1867516 -0.50610054 -0.84201306 0.030464368
0.14112113 0.14405502 1.0040001 0.23745991 -0.73095185 -0.63978291 0.0025542539
0.14936844 0.14575957 1.0055653 0.18343952 -0.73655367 -0.65102899 0.015650744
0.16201037 0.14757326 1.0073428 -0.19733351 -0.77222633 -0.60392553 0.071965724
0.16889882 0.14731814 1.0047501 -0.2836284 -0.70495921 -0.65006727 0.060234014
0.19753602 0.19879343 1.0040001 0.53769845 0.28537792 -0.79337245 0.0087514948
0.18419132 0.21191768 1.0047894 0.68473637 0.21406582 -0.69664329 0.018593619
0.19576089 0.21015432 1.0039999 0.51855975 0.30143875 -0.80014402 0.0085486574
0.18610775 0.21808738 1.0039999 0.68473637 0.21406582 -0.69664329 0.018593619
0.19445148 0.21917418 1.00685 0.51865602 0.30136445 -0.80010957 0.008525718
-0.32302362 0.3802349 1.0040001 0.31372765 0.48455513 -0.81656671 0.0059233881
-0.31849825 0.37885237 1.005 0.31050801 0.4844124 -0.81788105 0.0063326312
-0.3356986 0.38873851 1.0055001 0.31877324 0.46926796 -0.82351148 0.00683646
-0.32787707 0.38869584 1.0063 0.33649096 0.45475426 -0.82460445 0.0053716209
-0.31926754 0.38652304 1.0079474 0.33349812 0.47122934 -0.81653047 0.0047129425
-0.3349345 0.39778799 1.0070001 0.27127409 0.48214015 -0.83303738 0.0050278776
-0.32838252 0.39855886 1.0102309 0.2756134 0.48573086 -0.82951969 0.0045564636
-0.31875858 0.39835817 1.0128238 0.33408147 0.47866347 -0.81195498 0.010941863
-0.33968422 0.41161734 1.013 0.22923476 0.55771542 -0.79775 0.015811188
-0.33124763 0.40584493 1.013 0.28655627 0.50947028 -0.8113727 0.012812302
-0.17902936 -0.32332167 1.016 0.28129515 -0.52000743 -0.80651432 0.0082703298
-0.17109996 -0.32503253 1.0195 0.31646305 -0.43446517 -0.8432622 0.00716716
-0.16043846 -0.32674441 1.0227997 0.29318362 -0.38764241 -0.87394321 0.0069831945
-0.14914986 -0.32747194 1.0248998 0.30245948 -0.36670357 -0.87979925 0.0092869131
-0.14287475 -0.32438859 1.0250001 0.34743237 -0.35869297 -0.86638916 0.0094916727
-0.1714666 -0.31989378 1.0164286 0.33665267 -0.46640128 -0.81800658 0.006809101
-0.16026732 -0.31840184 1.01735 0.29126102 -0.39559618 -0.87101698 0.0085219415
-0.14917612 -0.31569076 1.0201163 0.31711924 -0.32066682 -0.89252907 0.011248766
-0.13765329 -0.31502825 1.0242308 0.39683306 -0.24865049 -0.88357031 0.004323863
-0.15587133 -0.30907059 1.016 0.32497099 -0.24233869 -0.91414756 0.015516057
-0.14800142 -0.30416188 1.0196857 0.38451827 -0.17469028 -0.90643758 0.0092219394
-0.13745947 -0.30370662 1.0231086 0.45359001 -0.15850979 -0.87700099 0.0057434919
-0.12849742 -0.30042636 1.0250001 0.36837715 -0.038229801 -0.92889005 0.0080137216
-0.15860958 -0.28910699 1.0167999 0.39095634 0.014173445 -0.92030013 0.012711979
-0.14892343 -0.29238808 1.017231 0.38975814 0.0094560357 -0.92086869 0.016151281
-0.13663477 -0.29189038 1.0221397 0.41238394 0.018786497 -0.91081637 0.013249178
-0.12969552 -0.29303801 1.0250001 0.41940975 -0.035907369 -0.90708661 0.0097839748
-0.15986128 -0.28283191 1.01645 0.45180053 0.059714824 -0.89011824 0.013266305
-0.14898814 -0.27968571 1.0179375 0.3931973 0.062368654 -0.9173364 0.013399518
-0.13776359 -0.28079829 1.0227827 0.40110967 0.078962058 -0.91262043 0.01150299
-0.15676202 -0.26453593 1.0159999 0.39481395 0.1211708 -0.91073579 0.012512142
-0.14933625 -0.26819935 1.0192096 0.41907179 0.082057744 -0.90423745 0.012879703
-0.13744548 -0.26835141 1.0241877 0.46579421 0.14136848 -0.87352777 0.0083969589
-0.13029458 -0.26777783 1.0250001 0.42372593 0.12856755 -0.89661968 0.010588842
-0.15770145 -0.25533175 1.0163158 0.41177398 0.2007857 -0.8888911 0.0050030574
-0.14912501 -0.25622505 1.0200387 0.42827556 0.21584174 -0.87749207 0.006362041
-0.14040904 -0.25679332 1.0244998 0.45639154 0.20183842 -0.86658406 0.0096667465
-0.16843179 -0.24266563 1.0173846 0.46768743 0.25408709 -0.84658617 0.003203494
-0.16084304 -0.24446326 1.0197501 0.43757692 0.27698049 -0.8554579 0.0050689527
-0.14979491 -0.2449697 1.0232 0.4498373 0.28843221 -0.84525335 0.0070664617
-0.14147694 -0.24691071 1.0250001 0.44072467 0.27341256 -0.85498965 0.01068279
-0.17072254 -0.23049282 1.0170348 0.52919716 0.20696139 -0.82287145 0.0055401037
-0.16100861 -0.23268805 1.0225871 0.47729677 0.26581877 -0.83757281 0.0079782065
-0.15103112 -0.23632742 1.0249999 0.43885738 0.29289219 -0.84948111 0.0053086933
-0.17188214 -0.22055139 1.0187333 0.56854397 0.24690613 -0.78472608 0.007779479
-0.16279913 -0.22048216 1.0236551 0.54368865 0.26629296 -0.79592127 0.011342201
-0.18342163 -0.20632218 1.016808 0.49137297 0.35413003 -0.79570377 0.010167908
-0.17388281 -0.20905811 1.0204998 0.53690648 0.34606954 -0.76939416 0.0061901268
-0.16533934 -0.21296425 1.0250001 0.54795724 0.32104194 -0.77244735 0.010208755
-0.19534394 -0.19516003 1.0165175 0.40689418 0.42029047 -0.81104434 0.0096079567
-0.18464155 -0.1965348 1.0218365 0.48772395 0.4113149 -0.77002943 0.012905543
-0.17636371 -0.19971927 1.0246667 0.4937481 0.38663462 -0.77892649 0.0067673968
-0.20677772 -0.18230815 1.0166818 0.44386235 0.36685479 -0.81755966 0.015377466
-0.19678655 -0.18442115 1.0190603 0.47522074 0.39871144 -0.7843433 0.012050607
-0.18592021 -0.18716605 1.0230384 0.45248055 0.4236002 -0.78474468 0.011259868
-0.21584468 -0.16952865 1.0159999 0.39406696 0.33961371 -0.85403383 0.0040366268
-0.20776549 -0.17232557 1.0199546 0.47347355 0.37464577 -0.79715961 0.013748427
-0.19925502 -0.17526183 1.0235791 0.49115145 0.41200626 -0.7674771 0.010613244
-0.2395965 -0.15587133 1.016 0.3695876 0.4016766 -0.83789074 0.0043700044
-0.22957619 -0.15854339 1.0159999 0.3536585 0.38559332 -0.85219914 0.0051318617
-0.21993311 -0.16054699 1.0186251 0.3625125 0.38959506 -0.84664059 0.0043239868
-0.20982952 -0.16130869 1.0231861 0.48820728 0.3863765 -0.78253871 0.0052384711
-0.20158219 -0.16563886 1.0250001 0.53025562 0.36552465 -0.76499718 0.0056778002
-0.24153742 -0.14736302 1.0163001 0.36080191 0.37919885 -0.85207409 0.004664504
-0.23239776 -0.1489307 1.0180002 0.33956411 0.37410939 -0.86298227 0.002317711
-0.22048731 -0.1494213 1.0229375 0.41220111 0.38464341 -0.82591748 0.0085925981
-0.21245077 -0.15057687 1.0250001 0.46403778 0.41521493 -0.78247398 0.0046509295
-0.32332167 -0.1327133 1.016 -0.38281813 0.33824763 -0.85967368 0.0047048661
-0.25295663 -0.13412744 1.0173846 0.36396414 0.39166865 -0.84505963 0.003024725
-0.24424487 -0.13670321 1.0192353 0.36525866 0.37756228 -0.85090113 0.0054428647
-0.23227413 -0.13725604 1.0224998 0.37687898 0.40264335 -0.83417058 0.0069068354
-0.22099373 -0.14006364 1.0248888 0.44535112 0.41970053 -0.79089433 0.0064550755
-0.32352522 -0.12557481 1.0192308 -0.35035521 0.35314992 -0.8674885 0.0033157216
-0.31826118 -0.1239569 1.0172353 -0.3076027 0.36877307 -0.87714708 0.0046564168
-0.26504716 -0.1233118 1.0168334 0.35954365 0.41129103 -0.83759648 0.0020321591
-0.25647566 -0.12597905 1.0195334 0.37874803 0.4167071 -0.82638079 0.0031804247
-0.24537776 -0.12530603 1.0235349 0.38750309 0.47967565 -0.78724372 0.0036433868
-0.23560855 -0.12903658 1.025 0.36371994 0.46103516 -0.80941617 0.0054237153
-0.32498527 -0.113929 1.0225713 -0.37332168 0.34015447 -0.86309087 0.0025878563
-0.31592852 -0.11352011 1.0196429 -0.31695205 0.35282454 -0.88037282 0.0055395565
-0.30446467 -0.11148164 1.0162072 -0.18872684 0.33468851 -0.92323655 0.0077797063
-0.29280058 -0.10943652 1.0159999 0.040975947 0.43522337 -0.89938956 0.014598954
-0.27959847 -0.11092673 1.0170591 0.19540638 0.42923638 -0.88180071 0.011918052
-0.2676912 -0.11372992 1.0196923 0.33556017 0.42587268 -0.84025693 0.008168878
-0.25670561 -0.1149153 1.0243077 0.43928817 0.44131717 -0.78247362 0.0048843045
-0.24926205 -0.11759782 1.024 0.41354793 0.44605833 -0.79373175 0.0048773806
-0.31543303 -0.10155509 1.0228999 -0.28408009 0.32995707 -0.90023708 0.0059476169
-0.30379364 -0.10088475 1.0196979 -0.15483926 0.40333241 -0.90185791 0.011904077
-0.29196388 -0.10097689 1.0193678 0.063499458 0.43837616 -0.89654571 0.0095990226
-0.28062999 -0.10163686 1.0220001 0.1954152 0.42851537 -0.88214934 0.0088721467
-0.26908958 -0.10488895 1.0234998 0.34229589 0.4368833 -0.83184528 0.0092423689
-0.26148775 -0.10693142 1.0250001 0.39336994 0.42341155 -0.81607771 0.0087875929
-0.31298274 -0.092019811 1.0240626 -0.27330962 0.36817816 -0.88867694 0.011793998
-0.30347598 -0.089843743 1.0231663 -0.092535138 0.39497122 -0.91402137 0.0082962466
-0.29305226 -0.090058267 1.0242939 0.058999419 0.43685567 -0.89759457 0.0093798768
-0.28194779 -0.092001095 1.0249999 0.1987723 0.4164187 -0.88717818 0.011089856
-0.27227074 -0.090756916 1.0250001 0.30822101 0.4441185 -0.84128386 0.011385375
-0.30012685 0.047624916 1.0250001 -0.21716627 -0.80443907 -0.55291653 0.0032116096
-0.29165342 0.045715127 1.0225295 -0.14877312 -0.81278306 -0.56324977 0.0032220231
-0.28060135 0.045133363 1.02236 0.022370981 -0.81986737 -0.57211632 0.0073380256
-0.26973316 0.046301402 1.0241429 0.14897567 -0.83287781 -0.53302968 0.0055854023
-0.25969058 0.047624916 1.0250001 0.24630781 -0.82953 -0.50121093 0.003748714
-0.31309363 0.055309776 1.021 0.26470536 -0.89486963 -0.35935965 0.088402487
-0.30377194 0.05232241 1.0203501 -0.23893525 -0.79748225 -0.5540145 0.0023046602
-0.29279593 0.050285522 1.01825 -0.17334178 -0.79371303 -0.58307141 0.0036293687
-0.27890781 0.049553346 1.0176363 0.064674042 -0.80694479 -0.58707535 0.0062126024
-0.2677699 0.05178839 1.0198569 0.16801564 -0.80491555 -0.56910604 0.0039990335
-0.25655702 0.052642446 1.0218847 0.2506569 -0.8149904 -0.52245736 0.0037852938
-0.24528329 0.056496534 1.0211667 0.2521058 -0.82497406 -0.50582641 0.0032628051
-0.23273306 0.057754401 1.025 0.24278075 -0.83047229 -0.50137144 0.002046702
-0.22554441 0.058407918 1.0250001 0.21535468 -0.84562624 -0.48840427 0.0010696365
-0.31441474 0.059676453 1.016 0.39007255 -0.84786797 -0.35911477 0.089760765
-0.24036241 0.060388599 1.018 0.24152815 -0.82787776 -0.50624347 0.0026918342
-0.23150511 0.062386684 1.0196004 0.22778003 -0.83946854 -0.49336475 0.0016118556
-0.22075176 0.063798524 1.0203003 0.24545658 -0.83333552 -0.49528074 0.0024786501
-0.20870122 0.06667193 1.0203847 0.23517403 -0.82548231 -0.51310056 0.003301048
-0.19700702 0.068565041 1.0229231 0.19778553 -0.821805 -0.53433841 0.0049915304
-0.18408976 0.069909781 1.0249999 0.15075551 -0.83209759 -0.53374743 0.0040447153
-0.17492424 0.070389032 1.0250001 0.21149167 -0.83117872 -0.5142113 0.0046844711
-0.19595253 0.073579967 1.0184705 0.18134551 -0.81437612 -0.55127609 0.0053400765
-0.18448751 0.075042643 1.0191075 0.18074298 -0.78731722 -0.58946049 0.0023620622
-0.17273654 0.076106943 1.0199375 0.20632625 -0.81883055 -0.53567344 0.0051759072
-0.16125777 0.079163633 1.0208 0.21857524 -0.84285128 -0.49175861 0.0035710726
-0.14940895 0.081566237 1.0224737 0.17019309 -0.8626014 -0.47639608 0.0023968003
-0.13785936 0.081655502 1.023579 0.14883688 -0.85637057 -0.49444631 0.001574091
-0.12849741 0.081771083 1.0250001 0.15070672 -0.84692276 -0.509911 0.001752777
-0.14840105 0.085476473 1.0164615 0.15490171 -0.87620544 -0.45636553 0.0013215464
-0.13628939 0.085974589 1.0184705 0.16421536 -0.8693704 -0.4660778 0.0023366914
-0.12599236 0.086533681 1.02104 0.1670159 -0.86237323 -0.47793114 0.0029404308
-0.11269784 0.088990554 1.0212059 0.16494946 -0.83385211 -0.52676582 0.002334167
-0.10151682 0.091411203 1.0210774 0.1531909 -0.83010375 -0.5361532 0.0016204998
-0.08972773 0.09243618 1.0212257 0.15464021 -0.82449245 -0.54433322 0.0012059415
-0.0784266 0.093605876 1.0229232 0.16397817 -0.82407886 -0.54222238 0.0016068977
-0.069190919 0.094351254 1.0250001 0.1508473 -0.8293153 -0.53803462 0.0028170731
-0.092335217 0.097085573 1.016 0.16308263 -0.81680828 -0.55337912 0.00052769599
-0.076654643 0.096963607 1.0182501 0.14645296 -0.83697581 -0.52727896 0.0014305031
-0.065138571 0.098256104 1.0200801 0.15036522 -0.82396263 -0.5463295 0.0026463734
-0.053283799 0.099788964 1.0202858 0.087101445 -0.84092838 -0.53409064 0.0039949296
-0.04242165 0.10049071 1.020286 0.065911435 -0.82418758 -0.56246817 0.0035082812
-0.028532743 0.10126444 1.0214286 0.14773981 -0.81018418 -0.56725186 0.0034016685
-0.018345388 0.10333723 1.0217779 0.15213154 -0.81383723 -0.56082529 0.0029748059
-0.0062830704 0.10501552 1.0238571 0.09760315 -0.80867869 -0.58009684 0.0019767198
0.0058125765 0.10524162 1.0242105 0.057211541 -0.81246227 -0.58019978 0.0015861983
0.017960489 0.10595459 1.02425 0.013695499 -0.81096864 -0.58492929 0.0017009596
0.029596519 0.10494126 1.0231428 0.012635579 -0.81625605 -0.57755214 0.0017314939
0.042083327 0.10517573 1.0235789 0.046111025 -0.80912161 -0.58582926 0.0023652997
0.05383331 0.10611453 1.025 0.058608994 -0.81316674 -0.57907236 0.0020230981
0.066576853 0.10627791 1.025 0.10929438 -0.80059594 -0.58915269 0.0032832196
0.074582413 0.10648213 1.0250001 0.13698833 -0.77037764 -0.62269777 0.0035607717
0.16578862 0.10468496 1.0250001 -0.63794822 -0.40867653 -0.65269107 0.039707858
0.17321092 0.10519248 1.0237368 -0.48615056 -0.51037484 -0.70934832 0.035143383
0.18247637 0.10334729 1.02335 -0.25453448 -0.60921049 -0.75104916 0.01890971
-0.016426226 0.10837378 1.0168571 0.1552078 -0.78661412 -0.59761918 0.0047517223
-0.0053961608 0.10957875 1.0171055 0.084463142 -0.75976217 -0.64469171 0.0038094115
0.0062411157 0.10967649 1.017143 0.020476935 -0.78200799 -0.6229319 0.0024108146
0.018041115 0.11052465 1.0178264 0.012677789 -0.77790636 -0.62825233 0.001970385
0.029424194 0.10967699 1.017143 0.029043457 -0.76817495 -0.63958085 0.001977534
0.042548612 0.11048191 1.0176156 0.047136929 -0.76566666 -0.64150816 0.0027534079
0.053355791 0.11117286 1.0195771 0.061725717 -0.75912154 -0.6480158 0.0015071252
0.065876849 0.11166839 1.0200909 0.10538083 -0.76528126 -0.63501132 0.0027781043
0.07756988 0.11348588 1.0186589 0.15599285 -0.75051349 -0.64218038 0.0026985442
0.089078262 0.11493803 1.0207274 0.16971615 -0.74474931 -0.64540297 0.0015735034
0.10094516 0.11650349 1.0228571 0.18093647 -0.77069491 -0.61097574 0.00030644919
0.11179274 0.11762697 1.02425 0.19024608 -0.76145083 -0.61967653 0.0010437173
0.16605449 0.11419569 1.0197501 -0.61672628 -0.24545705 -0.74793011 0.081062503
0.17263086 0.11123124 1.0192906 -0.55935365 -0.39502731 -0.72875023 0.052519545
0.18425703 0.1130922 1.0192369 -0.50906175 -0.4459174 -0.73621583 0.050702184
0.090214506 0.12049808 1.0159999 0.16653144 -0.7559849 -0.63305146 0.0014211764
0.10195738 0.12102716 1.0165999 0.17439222 -0.75504613 -0.63205445 0.00074950716
0.11447016 0.12253813 1.0192221 0.18036026 -0.7644214 -0.61897504 0.0016354807
0.12508193 0.1246141 1.0202 0.18223241 -0.75568968 -0.62906635 0.0013722779
0.13731842 0.1263506 1.0213637 0.22994882 -0.73593462 -0.6368075 0.0031954492
0.14826103 0.12835911 1.0225713 0.20050924 -0.74299997 -0.6385507 0.0328447
0.16288176 0.12479533 1.0225999 -0.67171562 -0.26699829 -0.69102097 0.12762995
0.1683875 0.12462649 1.0190001 -0.67818862 -0.34913155 -0.64665854 0.11223665
0.15019388 0.13458355 1.0172502 0.18587686 -0.71841723 -0.67031813 0.047407035
0.1599589 0.13722655 1.0207274 -0.063871875 -0.65055293 -0.75677025 0.12569915
0.16754326 0.13976608 1.0220001 -0.5107792 -0.69494009 -0.50612533 0.13665852
0.19684322 0.22534542 1.016 0.51859802 0.30139911 -0.80013412 0.0085550677
0.19417115 0.22712679 1.016 0.51865602 0.30136445 -0.80010957 0.008525718
-0.32510307 0.40437475 1.0159999 0.35797295 0.51689929 -0.77760565 0.022219889
-0.32084808 0.40074784 1.0172001 0.38712749 0.49475294 -0.77804363 0.019102365
-0.34571612 0.417182 1.0190001 0.26737082 0.60671061 -0.74860871 0.026300276
-0.33848509 0.41240749 1.0176073 0.29289314 0.60379285 -0.74138242 0.02575135
-0.32834631 0.41195831 1.0205516 0.32687914 0.56382793 -0.75845104 0.025033733
-0.3208926 0.41194081 1.0215001 0.33901834 0.53389746 -0.77460968 0.028328652
-0.33973217 0.42131189 1.0220001 0.22526914 0.60839969 -0.76098859 0.034922287
-0.32868344 0.41967902 1.0247856 0.30549303 0.63965577 -0.70534706 0.061511926
-0.31989565 0.42203465 1.0250001 0.4068006 0.57627273 -0.70881808 0.056862652
-0.14870019 -0.33435014 1.028 0.29493392 -0.47105786 -0.83133537 0.0076017678
-0.13748215 -0.33511657 1.03175 0.33546001 -0.51918977 -0.78607154 0.011396856
-0.16011555 -0.33194691 1.028 0.26807824 -0.45455757 -0.84941828 0.0054324819
-0.14599656 -0.33074528 1.028 0.32474965 -0.40163186 -0.85628819 0.009950662
-0.13683237 -0.32824171 1.0306667 0.35600135 -0.44605285 -0.82115763 0.015255015
-0.1277187 -0.3251892 1.0332501 0.38545448 -0.46251258 -0.79844022 0.012718807
-0.13428079 -0.32083192 1.028 0.3863557 -0.33077371 -0.86099827 0.0076979669
-0.12534755 -0.31582484 1.0306665 0.34348589 -0.35931075 -0.86770576 0.010003997
-0.11397146 -0.314354 1.0335456 0.29596066 -0.2539916 -0.92081243 0.01887878
-0.10560414 -0.31228006 1.034 0.24645652 -0.20612247 -0.94698083 0.015425882
-0.12483156 -0.30415729 1.0287104 0.36336163 -0.10088293 -0.92617005 0.0083032474
-0.11310463 -0.30385092 1.0321859 0.32245246 -0.12488941 -0.93831074 0.011890927
-0.10605738 -0.30729446 1.034 0.25795659 -0.1247405 -0.95807004 0.012021315
-0.12447335 -0.29166359 1.0300248 0.35727167 0.022403024 -0.93373185 0.0098177465
-0.11332811 -0.29218873 1.0327332 0.35239407 0.021010034 -0.93561584 0.010626507
-0.10372644 -0.28812903 1.034 0.2954922 0.072603703 -0.9525823 0.011668143
-0.13428079 -0.27667248 1.028 0.44118768 0.13011256 -0.88793254 0.012280414
-0.12545751 -0.27971822 1.0282044 0.37987468 0.14512701 -0.91358268 0.01308981
-0.11314748 -0.28011525 1.0306512 0.38638267 0.10791537 -0.91600364 0.015593602
-0.1052804 -0.28320816 1.034 0.28174946 0.090622507 -0.95519882 0.01456692
-0.13337958 -0.26225308 1.028 0.45066053 0.19907889 -0.8702141 0.016270015
-0.12504871 -0.26815155 1.0301998 0.42840704 0.14453343 -0.89195144 0.014770966
-0.11636183 -0.2714273 1.0332001 0.35987502 0.12971947 -0.92393875 0.012707087
-0.13511276 -0.25542226 1.0286249 0.45629004 0.17993642 -0.8714484 0.016900554
-0.12581742 -0.25616479 1.0325304 0.441425 0.18450756 -0.87812346 0.018450622
-0.11665614 -0.25513738 1.0340002 0.36664459 0.19776179 -0.90909958 0.014162365
-0.14419413 -0.24062395 1.028 0.42440546 0.28942123 -0.85797167 0.01205981
-0.13691971 -0.2439813 1.0321164 0.4133549 0.27880436 -0.86683667 0.013098762
-0.12491202 -0.24710461 1.034 0.41252029 0.21334328 -0.88561374 0.01650927
-0.15681112 -0.22890818 1.028 0.45759991 0.26252475 -0.84951937 0.0056302254
-0.14825617 -0.23177007 1.0313846 0.43750185 0.28077099 -0.85425985 0.011434431
-0.13738739 -0.23177385 1.0340003 0.41792554 0.30011904 -0.85747701 0.013584822
-0.12847199 -0.23312844 1.0340002 0.36516073 0.27632397 -0.88898969 0.010961641
-0.15830022 -0.22008619 1.0288999 0.47574654 0.31735829 -0.82033467 0.0081218844
-0.14928137 -0.22064638 1.0315217 0.43304938 0.34238672 -0.83381027 0.010001256
-0.14140984 -0.22299242 1.034 0.40588745 0.31396285 -0.8583023 0.011423219
-0.16975512 -0.20617536 1.03 0.52443993 0.35049009 -0.77596366 0.0080361916
-0.16055526 -0.20899767 1.0320624 0.48144951 0.31858721 -0.81652224 0.0072932169
-0.15119261 -0.21079083 1.0333686 0.44131079 0.31698608 -0.83950263 0.0058830157
-0.17157149 -0.1961555 1.0303684 0.51424241 0.38075158 -0.76849401 0.0078606959
-0.16121623 -0.19761124 1.0340003 0.48612881 0.34782565 -0.80168331 0.0064462484
-0.19223854 -0.18050435 1.0295 0.46478248 0.4424091 -0.76697552 0.012724214
-0.18400542 -0.182666 1.0294445 0.46305427 0.43446097 -0.77254409 0.01089845
-0.17400591 -0.18600665 1.0321052 0.44159409 0.39201066 -0.80704546 0.0083617019
-0.16452491 -0.1889997 1.034 0.49578872 0.34793732 -0.79569662 0.0065274718
-0.1954042 -0.17170183 1.0310001 0.48394436 0.44456741 -0.75376236 0.012977406
-0.18526134 -0.17352507 1.0335002 0.46108675 0.40586111 -0.78909802 0.0093249446
-0.17766879 -0.17404287 1.0340002 0.41219968 0.40259859 -0.81731629 0.0080970787
-0.20447452 -0.15850127 1.02825 0.52132148 0.40216082 -0.75265563 0.0043050642
-0.19738986 -0.16100344 1.0313659 0.50794494 0.40504259 -0.76021874 0.0096437335
-0.18854645 -0.16588461 1.034 0.44879979 0.41415057 -0.79186994 0.0081441961
-0.20833893 -0.14908516 1.0306842 0.52545589 0.41897681 -0.74050963 0.0045574573
-0.20093493 -0.15198536 1.034 0.5329178 0.38955435 -0.75116318 0.004374519
-0.22800697 -0.13247836 1.028 0.4136759 0.45961988 -0.78588921 0.0052404357
-0.2194422 -0.13486615 1.0304445 0.466434 0.47622895 -0.74541622 0.0058940742
-0.21180375 -0.14120404 1.0325 0.49943146 0.4278776 -0.75331861 0.0051511675
-0.24045631 -0.12198125 1.0289999 0.39522663 0.48929825 -0.77742076 0.0048200414
-0.23182562 -0.12497672 1.0316427 0.42096862 0.51452297 -0.74702841 0.0057318318
-0.22325693 -0.12713602 1.0334288 0.44171453 0.48969287 -0.75172412 0.002241302
-0.32866204 -0.10855033 1.0289999 -0.42185131 0.33588699 -0.84215283 0.003338296
-0.25327328 -0.1095761 1.0287499 0.4276967 0.44393957 -0.78739643 0.004926716
-0.24509098 -0.11422133 1.0316486 0.41920865 0.4963223 -0.760216 0.0045191413
-0.23447444 -0.11814369 1.034 0.39976418 0.49253222 -0.77304631 0.0042537265
-0.32681558 -0.10160819 1.0296072 -0.39983866 0.35027999 -0.84701413 0.0040911972
-0.32173315 -0.09733104 1.028 -0.39324281 0.36115852 -0.84553218 0.0047305864
-0.27607167 -0.097931854 1.028 0.27643311 0.40699223 -0.87059873 0.0093286671
-0.26726514 -0.099872425 1.0286562 0.40128228 0.41327122 -0.81742245 0.011230197
-0.25653154 -0.10214324 1.0311395 0.43568602 0.44127622 -0.78450811 0.010663013
-0.32644007 -0.09004385 1.0319232 -0.40257284 0.38112041 -0.83227545 0.0045964038
-0.31746653 -0.087873027 1.0296072 -0.3568674 0.38591045 -0.85071659 0.0075101191
-0.3032583 -0.084038146 1.028 -0.090712361 0.43679586 -0.89497519 0.011912318
-0.28954697 -0.086773977 1.028 0.13937706 0.43347338 -0.89032292 0.0071281465
-0.27955726 -0.088173248 1.0286666 0.29180461 0.4528752 -0.84246904 0.011885934
-0.26879084 -0.090013452 1.0307143 0.37131959 0.44983229 -0.81226385 0.013682721
-0.2590467 -0.092710644 1.0338237 0.40725821 0.43857151 -0.80112159 0.011108157
-0.31460375 -0.078144357 1.0330324 -0.30326727 0.45005035 -0.83993071 0.0074619446
-0.3038519 -0.076860972 1.0315453 -0.088826858 0.49980754 -0.86156964 0.013746471
-0.29166624 -0.076891489 1.0304372 0.090115093 0.52494079 -0.84635484 0.0068454216
-0.2800962 -0.077247366 1.0327442 0.25435683 0.51865888 -0.81626928 0.014145694
-0.27161172 -0.080275126 1.03275 0.32862994 0.49182805 -0.80629247 0.011521661
-0.31182683 -0.069798447 1.034 -0.20587865 0.4883 -0.84804308 0.012257416
-0.30237359 -0.068373993 1.0340002 0.017050909 0.54964072 -0.83522713 0.011998557
-0.29330888 -0.06928046 1.034 0.095114827 0.52736032 -0.8443011 0.0057615149
-0.31182772 0.045115542 1.0333999 -0.018254451 -0.83159292 -0.55508548 0.040623497
-0.30364564 0.043062344 1.0323752 -0.2280217 -0.79811406 -0.55769169 0.0022726099
-0.29187432 0.040803328 1.0318334 -0.14016563 -0.8094663 -0.5701912 0.0057217358
-0.27957866 0.039284769 1.0317827 0.056022804 -0.85176945 -0.52091306 0.0089957379
-0.26815268 0.041927196 1.0306668 0.18816261 -0.84759176 -0.49616835 0.006087359
-0.25728926 0.044969618 1.0318573 0.27839512 -0.83714467 -0.47083417 0.0040040091
-0.24746722 0.046230141 1.034 0.26997387 -0.83172017 -0.48513481 0.0030627865
-0.31476191 0.050578408 1.0302501 -0.010988137 -0.82481211 -0.56530011 0.045319267
-0.30701336 0.048365116 1.028 -0.26903844 -0.79030395 -0.55048883 0.0018146415
-0.26405549 0.047764305 1.028 0.25718877 -0.81703007 -0.51605797 0.00366362
-0.25336677 0.048828196 1.0293334 0.27313969 -0.83348906 -0.48030272 0.0032438373
-0.24462664 0.051791113 1.0313216 0.25782993 -0.83660132 -0.48334458 0.0034742157
-0.23296416 0.054395042 1.0314738 0.24358046 -0.82953197 -0.5025388 0.0019659246
-0.22038676 0.056452975 1.0322694 0.24564889 -0.83587897 -0.49087965 0.0027993685
-0.21241693 0.058316454 1.034 0.24586059 -0.84439951 -0.47596431 0.0017878367
-0.21689895 0.060875952 1.0287499 0.23514348 -0.84950078 -0.4722881 0.002106305
-0.2082167 0.062071364 1.0311668 0.24045314 -0.84766889 -0.47290573 0.0025225501
-0.1961334 0.063365951 1.0310001 0.20145141 -0.87020522 -0.44962242 0.0043096878
-0.18573894 0.066025317 1.0301667 0.15741831 -0.86084312 -0.48390985 0.0053728879
-0.17226025 0.068494938 1.0316317 0.21966214 -0.84355998 -0.49005619 0.0064189751
-0.16407168 0.069798447 1.034 0.23988818 -0.82984334 -0.50379926 0.0042221332
-0.16852689 0.072998278 1.028 0.23507906 -0.83131087 -0.50364673 0.0035906262
-0.16041434 0.074323669 1.032143 0.22023018 -0.82860106 -0.51470286 0.0034079042
-0.14871918 0.076536886 1.0313915 0.16671504 -0.83923113 -0.5175879 0.0031019219
-0.13736524 0.076657884 1.032091 0.13226685 -0.838117 -0.52921206 0.0019586284
-0.12642883 0.079491481 1.0316001 0.15222307 -0.84237689 -0.5169422 0.0022794856
-0.11381731 0.080137007 1.0321741 0.14993265 -0.84250569 -0.51740158 0.002246907
-0.10462074 0.081976004 1.03325 0.14218596 -0.83838069 -0.52621377 0.0021164829
-0.091553807 0.082489073 1.034 0.16405913 -0.82995415 -0.5331611 0.0015200217
-0.12130331 0.084533818 1.028 0.1664499 -0.83933204 -0.51750958 0.0014002776
-0.11355288 0.084413648 1.028 0.15324771 -0.84054995 -0.51960659 0.0020603405
-0.10147257 0.085221156 1.0300626 0.15380083 -0.83231175 -0.53254354 0.0019649342
-0.088928275 0.086490691 1.031 0.1523681 -0.83291197 -0.53201658 0.001572612
-0.077153943 0.088981189 1.0313751 0.15634735 -0.81652158 -0.55574101 0.0022864402
-0.065988012 0.091028132 1.0320647 0.10977469 -0.81237376 -0.57271147 0.0041926573
-0.053518459 0.09276893 1.0332502 0.092123576 -0.80118889 -0.59127796 0.003446168
-0.041275259 0.092281841 1.0328752 0.069653563 -0.77979249 -0.62215114 0.00232022
-0.030559605 0.092999466 1.0335912 0.10967933 -0.8188296 -0.56346118 0.0055565848
-0.020546729 0.094575383 1.034 0.16034687 -0.80203557 -0.57535011 0.0023913726
0.17475769 0.094622903 1.0328749 -0.45579708 -0.60060203 -0.65690649 0.04013849
0.17934145 0.093726188 1.028 -0.19867422 -0.67586207 -0.70974576 0.010052978
-0.060381293 0.096429825 1.028 0.12239012 -0.81991059 -0.55925596 0.0032387804
-0.053213663 0.096510224 1.0288571 0.092585117 -0.82014149 -0.56462014 0.003569586
-0.041087989 0.096727513 1.0284284 0.059339609 -0.82316679 -0.56469041 0.0046906341
-0.029487023 0.097348318 1.0289232 0.11362374 -0.82081038 -0.55978554 0.0057818503
-0.017279159 0.098199345 1.0302001 0.13759589 -0.822685 -0.55159479 0.0036294865
-0.0063885939 0.099432997 1.0301112 0.1083959 -0.81799507 -0.56491983 0.0019247528
0.0064489404 0.099773102 1.0304829 0.03414844 -0.82375985 -0.56590956 0.0013370124
0.018082457 0.10126301 1.0313751 0.020260703 -0.82591099 -0.56343627 0.0010972436
0.029836347 0.10035092 1.0312859 0.0090917088 -0.81643564 -0.57736498 0.0014030494
0.041470349 0.10060603 1.0319474 0.039234173 -0.83025479 -0.55600154 0.0023372674
0.052944124 0.10164472 1.0303078 0.058895025 -0.81855029 -0.57140768 0.0023210263
0.065232158 0.10261574 1.0303479 0.073158331 -0.81471765 -0.57522434 0.002310948
0.07775645 0.1033925 1.0304232 0.1283828 -0.78481048 -0.60629219 0.0024038188
0.087604314 0.10474584 1.0330002 0.1673817 -0.76957655 -0.61622667 0.0027353948
0.096992649 0.10605738 1.034 0.19584602 -0.76602501 -0.61224997 0.0011257043
0.16382998 0.099564001 1.0325 -0.66451931 -0.48601821 -0.56762695 0.042692684
0.17242709 0.099330001 1.0293928 -0.4694128 -0.54427153 -0.69528419 0.033599764
0.18006241 0.099313706 1.028 -0.28654277 -0.61060786 -0.73827595 0.017785752
0.082010411 0.10904681 1.028 0.16153093 -0.76155764 -0.62764454 0.0024904991
0.090377785 0.10907532 1.0302942 0.19528291 -0.76516223 -0.61350745 0.0011496471
